ply
format ascii 1.0
comment Created by Open3D
element vertex 1577
property double x
property double y
property double z
end_header
-0.0330289 -0.0795453 0.338965
-0.0320179 -0.0795349 0.339168
-0.029805 -0.0767722 0.333044
-0.0294907 -0.0783289 0.336852
-0.0284893 -0.0783119 0.337043
-0.027007 -0.0771147 0.334514
-0.0255472 -0.0759157 0.331977
-0.0254817 -0.0782476 0.337596
-0.0237351 -0.0762597 0.333235
-0.0226054 -0.0758398 0.332498
-0.0216238 -0.0758101 0.332665
-0.0206416 -0.0757782 0.332829
-0.019659 -0.0757442 0.332989
-0.017512 -0.072182 0.324948
-0.0159358 -0.0701869 0.320539
-0.0161004 -0.0736717 0.328891
-0.0146643 -0.0720646 0.325384
-0.0131448 -0.0700657 0.320957
-0.0127639 -0.0719758 0.32566
-0.0116007 -0.0711468 0.323964
-0.009839 -0.0679732 0.316773
-0.00882778 -0.0675332 0.315979
-0.00744577 -0.0655312 0.311517
-0.00619283 -0.0639194 0.307964
-0.00557832 -0.0650349 0.310822
-0.00477444 -0.0653683 0.311845
-0.0038044 -0.064921 0.311031
-0.0029171 -0.064861 0.311131
-0.00160166 -0.0624675 0.305716
-0.000332532 -0.0600753 0.300293
0.000381754 -0.060789 0.302218
0.00135045 -0.0599488 0.300463
0.00208059 -0.0606576 0.302384
0.0028783 -0.0609762 0.303383
0.00368392 -0.0612924 0.30438
0.00462992 -0.0604465 0.302611
0.00572165 -0.0580555 0.297152
0.00662127 -0.05721 0.295373
0.00750544 -0.0563641 0.293591
0.0084028 -0.0551328 0.290882
0.0180556 -0.0552365 0.294142
0.0195238 -0.0527618 0.288635
0.0205189 -0.0553122 0.295128
0.0211998 -0.0536948 0.291443
-0.14731 -0.0777442 0.31768
-0.148194 -0.0800055 0.322611
-0.147783 -0.0806059 0.323953
-0.148456 -0.0819178 0.326811
-0.146393 -0.0814478 0.325878
-0.145959 -0.0820452 0.32722
-0.144444 -0.0819247 0.327034
-0.143465 -0.0821596 0.327607
-0.142485 -0.082392 0.328178
-0.141502 -0.082622 0.328745
-0.138425 -0.0814031 0.326221
-0.135372 -0.0801757 0.32368
-0.132344 -0.0789398 0.32112
-0.128314 -0.0769679 0.316987
-0.126361 -0.0764434 0.315946
-0.124926 -0.076279 0.315676
-0.123998 -0.0764769 0.316182
-0.122569 -0.0763057 0.3159
-0.12164 -0.0764985 0.316398
-0.121203 -0.0770571 0.317682
-0.120267 -0.077246 0.318176
-0.119329 -0.0774326 0.318667
-0.118872 -0.0779872 0.319948
-0.117926 -0.07817 0.320435
-0.116979 -0.0783504 0.320919
-0.115558 -0.0781564 0.3206
-0.113673 -0.0775861 0.319474
-0.110404 -0.0758905 0.315931
-0.107629 -0.0745606 0.313172
-0.105339 -0.0735983 0.311202
-0.103523 -0.0730054 0.310027
-0.10217 -0.0727838 0.309651
-0.10127 -0.0729354 0.31008
-0.0999245 -0.0727078 0.309693
-0.0990251 -0.0728545 0.310115
-0.0981239 -0.0729991 0.310533
-0.0967872 -0.0727628 0.310131
-0.0963167 -0.0732818 0.311362
-0.0954106 -0.07342 0.311771
-0.0940795 -0.0731756 0.311356
-0.0931737 -0.0733089 0.311758
-0.0926825 -0.0738215 0.312983
-0.09177 -0.0739511 0.313381
-0.091265 -0.0744608 0.314605
-0.0907514 -0.0749694 0.315828
-0.0906311 -0.0758602 0.317883
-0.090495 -0.0767507 0.319942
-0.090343 -0.0776408 0.322003
-0.0901751 -0.0785305 0.324067
-0.0899913 -0.0794198 0.326133
-0.0897916 -0.0803085 0.328203
-0.0876734 -0.0792665 0.326073
-0.0848215 -0.0774468 0.322248
-0.0823776 -0.0760076 0.319249
-0.0803308 -0.0749502 0.31708
-0.0790365 -0.0746635 0.316592
-0.0777479 -0.074374 0.316097
-0.0761066 -0.0736931 0.314749
-0.0744784 -0.0730086 0.313392
-0.073215 -0.0727097 0.312878
-0.0719576 -0.072408 0.312358
-0.0707063 -0.0721035 0.311832
-0.0694609 -0.0717962 0.311302
-0.0685586 -0.0718767 0.311622
-0.0676549 -0.0719551 0.311939
-0.0667501 -0.0720314 0.312254
-0.0661699 -0.0724971 0.313426
-0.065259 -0.0725695 0.313735
-0.0643469 -0.0726399 0.314042
-0.0634336 -0.0727081 0.314346
-0.0622082 -0.0723817 0.313781
-0.0612964 -0.0724455 0.314077
-0.0603834 -0.0725072 0.314371
-0.0594694 -0.0725668 0.314662
-0.0585543 -0.0726243 0.314949
-0.0576381 -0.0726797 0.315234
-0.0570095 -0.073127 0.316388
-0.0566574 -0.0739669 0.318415
-0.0562894 -0.0748055 0.320444
-0.0556278 -0.0752481 0.321598
-0.0549577 -0.0756889 0.322751
-0.0542791 -0.0761279 0.323903
-0.0533258 -0.07617 0.324175
-0.052109 -0.0758146 0.323564
-0.0521924 -0.077434 0.327353
-0.0514797 -0.0778655 0.328501
-0.0520146 -0.0802737 0.334065
-0.0529982 -0.0834728 0.341406
-0.0339562 -0.0805124 0.338355
-0.0329456 -0.0805041 0.338561
-0.0319343 -0.0804937 0.338765
-0.0295519 -0.077309 0.33175
-0.0292399 -0.0788802 0.335551
-0.0277512 -0.0776741 0.333031
-0.0261251 -0.0760699 0.3296
-0.0253089 -0.0764452 0.330683
-0.0247887 -0.0776105 0.333576
-0.0229106 -0.0752087 0.328314
-0.0223778 -0.0763693 0.331202
-0.0211186 -0.075548 0.329554
-0.0201477 -0.0755164 0.329716
-0.0191763 -0.0754827 0.329875
-0.0174305 -0.0730744 0.324574
-0.0157306 -0.0706657 0.319263
-0.0156532 -0.073393 0.325779
-0.0148168 -0.0737464 0.326833
-0.013291 -0.0717288 0.322415
-0.0123519 -0.0716838 0.322549
-0.0114124 -0.0716367 0.32268
-0.00965693 -0.0684342 0.315502
-0.00874775 -0.0683846 0.315622
-0.00755558 -0.0671518 0.312997
-0.00683809 -0.0678859 0.31494
-0.00593189 -0.0678305 0.315052
-0.00519062 -0.0685591 0.316992
-0.00411872 -0.0677137 0.315265
-0.00306207 -0.0668673 0.313534
-0.0020207 -0.06602 0.311798
-0.000793375 -0.0639959 0.307305
0.000268939 -0.0627561 0.304641
0.00130818 -0.0615162 0.301972
0.00210246 -0.0618404 0.302972
0.00300778 -0.0613807 0.302132
0.00361936 -0.0632622 0.306805
0.00457652 -0.062408 0.30504
0.0055582 -0.0611634 0.302351
0.00662484 -0.0587507 0.296896
0.00745197 -0.0586748 0.296959
0.00844884 -0.056265 0.291493
0.0109606 -0.0537025 0.286122
0.0117414 -0.0536223 0.286168
0.0125222 -0.0535404 0.286212
0.013288 -0.0546157 0.28902
0.0140804 -0.0545291 0.289058
0.01487 -0.0540553 0.288172
0.0156585 -0.0539657 0.288205
0.0164364 -0.0534897 0.287313
0.017322 -0.0560859 0.293803
0.0181337 -0.0559882 0.293829
0.0188341 -0.053973 0.289236
0.0218884 -0.052424 0.286529
0.0228764 -0.0542232 0.291158
0.0235846 -0.0533545 0.289317
0.0260191 -0.0591994 0.304104
0.0259008 -0.0526434 0.288398
-0.149096 -0.0808041 0.321569
-0.148691 -0.0814101 0.32291
-0.148276 -0.0820154 0.324252
-0.148399 -0.0829796 0.326351
-0.147421 -0.0832238 0.326937
-0.145901 -0.0831042 0.32676
-0.144922 -0.0833427 0.327339
-0.143407 -0.0832159 0.327149
-0.142956 -0.0838124 0.328486
-0.140917 -0.0833147 0.327518
-0.137844 -0.0820812 0.324999
-0.134794 -0.0808391 0.322462
-0.131254 -0.0792218 0.319132
-0.128257 -0.0779623 0.316556
-0.125795 -0.0770627 0.314741
-0.124869 -0.0772632 0.31525
-0.123438 -0.0770918 0.314974
-0.122012 -0.0769168 0.314692
-0.121087 -0.0771091 0.315188
-0.121144 -0.0780428 0.317255
-0.119719 -0.0778595 0.31696
-0.11927 -0.0784189 0.31824
-0.118812 -0.0789774 0.31952
-0.117867 -0.0791605 0.320007
-0.116444 -0.0789661 0.319694
-0.115026 -0.0787682 0.319376
-0.112676 -0.0778139 0.317452
-0.109414 -0.0760994 0.313913
-0.107109 -0.0751318 0.311959
-0.10528 -0.0745366 0.310796
-0.103464 -0.0739368 0.309624
-0.102111 -0.0737119 0.30925
-0.100764 -0.0734837 0.308869
-0.0998657 -0.0736328 0.309294
-0.0989659 -0.0737798 0.309715
-0.0980645 -0.0739246 0.310134
-0.0971613 -0.0740673 0.310549
-0.0962565 -0.0742078 0.310962
-0.0953501 -0.0743462 0.311372
-0.0940189 -0.0740985 0.310958
-0.0931128 -0.074232 0.31136
-0.0922051 -0.0743634 0.31176
-0.0917082 -0.0748782 0.312981
-0.0912027 -0.0753917 0.314203
-0.0906885 -0.0759042 0.315425
-0.0905675 -0.0768024 0.317477
-0.0904305 -0.0777002 0.319532
-0.0902777 -0.0785978 0.32159
-0.090109 -0.0794949 0.323651
-0.0899243 -0.0803916 0.325715
-0.0889561 -0.0805093 0.326107
-0.0860849 -0.0786765 0.322301
-0.0832484 -0.0768372 0.318478
-0.0815657 -0.076163 0.317163
-0.079896 -0.075485 0.315839
-0.0786052 -0.0751946 0.31535
-0.0769581 -0.0745095 0.314011
-0.0756827 -0.0742128 0.31351
-0.0744133 -0.0739133 0.313003
-0.0731499 -0.0736109 0.31249
-0.0715448 -0.0729125 0.311121
-0.070641 -0.0729976 0.311448
-0.0693956 -0.0726868 0.310919
-0.0684929 -0.0727674 0.311239
-0.067589 -0.072846 0.311557
-0.0666838 -0.0729224 0.311871
-0.0657775 -0.0729968 0.312183
-0.06487 -0.073069 0.312491
-0.0642794 -0.0735348 0.313658
-0.0633659 -0.0736031 0.313962
-0.0624511 -0.0736694 0.314263
-0.0615353 -0.0737335 0.314561
-0.0606183 -0.0737955 0.314855
-0.0597003 -0.0738555 0.315147
-0.0587811 -0.0739133 0.315436
-0.058153 -0.0743664 0.316592
-0.0575164 -0.0748179 0.317746
-0.0568713 -0.0752676 0.318901
-0.0564986 -0.0761137 0.320927
-0.0558327 -0.0765602 0.322081
-0.0551583 -0.0770049 0.323234
-0.0542056 -0.0770492 0.323509
-0.0535179 -0.07749 0.324659
-0.0525595 -0.0775301 0.324929
-0.0523754 -0.0787652 0.327835
-0.0521678 -0.079999 0.330744
-0.0539438 -0.084426 0.34071
-0.0316108 -0.0786599 0.331862
-0.0308008 -0.0790498 0.33296
-0.0291277 -0.0774368 0.329554
-0.0279946 -0.0794056 0.334439
-0.027797 -0.0813859 0.339138
-0.0261598 -0.0797647 0.335712
-0.0239457 -0.076543 0.328661
-0.0214967 -0.0725213 0.319786
-0.0211414 -0.0740931 0.323569
-0.0199133 -0.0732654 0.321919
-0.0184275 -0.0716376 0.318449
-0.0184297 -0.0743994 0.324951
-0.016705 -0.07197 0.319657
-0.0151509 -0.0699392 0.31526
-0.0147234 -0.0714962 0.319036
-0.0136793 -0.0710571 0.318266
-0.0119632 -0.0682262 0.31203
-0.011285 -0.0689795 0.31398
-0.010591 -0.0697299 0.315929
-0.00947482 -0.0688864 0.31423
-0.00876471 -0.069632 0.316175
-0.00756947 -0.0683881 0.313555
-0.00666715 -0.0683347 0.313669
-0.00576454 -0.0682794 0.31378
-0.0048617 -0.0682221 0.313888
-0.00403697 -0.0685592 0.314908
-0.00290628 -0.0673093 0.312265
-0.00186922 -0.0664549 0.310532
-0.000714019 -0.0648084 0.306962
0.000347494 -0.0635576 0.304303
0.00150385 -0.0615167 0.299804
0.00229098 -0.061845 0.300803
0.00329084 -0.0605934 0.298129
0.00393624 -0.0621 0.301875
0.00478662 -0.0620275 0.301948
0.00587453 -0.0595928 0.296507
0.00670179 -0.0595185 0.296573
0.00759278 -0.0586571 0.294797
0.00863575 -0.0554416 0.287502
0.0125878 -0.0546539 0.286828
0.0133681 -0.0549596 0.28779
0.0149392 -0.054007 0.286023
0.0157342 -0.0546952 0.287899
0.0165119 -0.0542155 0.287008
0.0173708 -0.0560611 0.291644
0.0182122 -0.0567387 0.293514
0.0189788 -0.0558656 0.291694
0.0197827 -0.0557651 0.291715
0.0205561 -0.0552771 0.290811
0.0211847 -0.0532473 0.286215
0.0220793 -0.0542989 0.288994
0.0229551 -0.0549615 0.290848
0.0246035 -0.0551255 0.291782
0.0252455 -0.0538648 0.289017
-0.147928 -0.0811271 0.319613
-0.148633 -0.0824585 0.32245
-0.148768 -0.0834301 0.324543
-0.148341 -0.0840395 0.325886
-0.147362 -0.0842841 0.326473
-0.145842 -0.0841614 0.326297
-0.144326 -0.0840347 0.326114
-0.143348 -0.0842703 0.326687
-0.142366 -0.0845036 0.327257
-0.139805 -0.0836304 0.325524
-0.136739 -0.0823814 0.323007
-0.133697 -0.0811239 0.320472
-0.130163 -0.0794877 0.317146
-0.127687 -0.0785837 0.315348
-0.125737 -0.0780448 0.314311
-0.124811 -0.0782457 0.31482
-0.123882 -0.0784444 0.315325
-0.121954 -0.0778928 0.314265
-0.121028 -0.0780855 0.314761
-0.120593 -0.0786513 0.31604
-0.119659 -0.0788401 0.316532
-0.11921 -0.0794034 0.31781
-0.118752 -0.0799658 0.319088
-0.117806 -0.0801492 0.319575
-0.115907 -0.0795728 0.31847
-0.114021 -0.0789916 0.317355
-0.11121 -0.0776456 0.314634
-0.108424 -0.0762922 0.311897
-0.106126 -0.0753129 0.309945
-0.104763 -0.0750914 0.309585
-0.103405 -0.0748666 0.309218
-0.102052 -0.0746384 0.308845
-0.101152 -0.0747904 0.309274
-0.0998056 -0.0745562 0.308891
-0.0989055 -0.0747034 0.309312
-0.0980038 -0.0748484 0.309731
-0.0971003 -0.0749914 0.310146
-0.0961952 -0.0751321 0.310559
-0.0952885 -0.0752707 0.310969
-0.0943801 -0.0754072 0.311376
-0.0930507 -0.0751534 0.310959
-0.0929743 -0.0760622 0.313003
-0.0920575 -0.0761927 0.313402
-0.0915479 -0.0767106 0.314624
-0.0914347 -0.0776174 0.316673
-0.0909041 -0.0781334 0.317896
-0.0907628 -0.0790391 0.31995
-0.0906055 -0.0799445 0.322006
-0.0904324 -0.0808495 0.324065
-0.0898561 -0.0813617 0.325293
-0.0885039 -0.0810867 0.324849
-0.0844974 -0.0780558 0.318538
-0.0820526 -0.0765907 0.315556
-0.0807537 -0.0763023 0.315079
-0.0790915 -0.0756164 0.313756
-0.0778079 -0.0753217 0.313266
-0.0765301 -0.0750241 0.312771
-0.0749001 -0.0743279 0.311424
-0.0739925 -0.0744202 0.311764
-0.0727326 -0.074114 0.311251
-0.0714788 -0.0738049 0.310733
-0.0705746 -0.0738902 0.311061
-0.0693292 -0.0735759 0.310533
-0.0684262 -0.0736566 0.310854
-0.067522 -0.0737353 0.311171
-0.0666166 -0.0738118 0.311485
-0.0657099 -0.0738863 0.311797
-0.0648021 -0.0739586 0.312105
-0.063893 -0.0740289 0.312411
-0.063297 -0.0744966 0.313575
-0.062382 -0.0745629 0.313876
-0.0614659 -0.0746271 0.314173
-0.0608517 -0.0750896 0.315333
-0.0599296 -0.0751498 0.315626
-0.0590064 -0.0752079 0.315916
-0.058374 -0.075665 0.317071
-0.057733 -0.0761203 0.318226
-0.0570836 -0.076574 0.31938
-0.0567063 -0.0774276 0.321405
-0.056036 -0.0778779 0.322558
-0.0553572 -0.0783264 0.32371
-0.0544005 -0.0783709 0.323986
-0.0534428 -0.0784132 0.32426
-0.0522221 -0.0780508 0.323653
-0.0517825 -0.078894 0.325675
-0.0505637 -0.0785271 0.32506
-0.0541129 -0.0858139 0.341165
-0.0307517 -0.0823933 0.338147
-0.0297385 -0.0823781 0.338344
-0.0287247 -0.0823607 0.338538
-0.0267555 -0.0799198 0.333322
-0.0259188 -0.0803018 0.334406
-0.0232565 -0.075841 0.32466
-0.0218592 -0.0746063 0.32212
-0.0210594 -0.0749827 0.323188
-0.0202514 -0.0753568 0.324254
-0.0187551 -0.073714 0.320792
-0.0190075 -0.0773062 0.329097
-0.0171368 -0.0744516 0.322909
-0.0154443 -0.0719995 0.317616
-0.0150036 -0.0735704 0.321387
-0.0133643 -0.0711163 0.31608
-0.0118838 -0.0690643 0.311671
-0.0109867 -0.069021 0.311799
-0.0104046 -0.0701806 0.314654
-0.00929267 -0.0693299 0.312958
-0.00897504 -0.0716875 0.318543
-0.00748841 -0.069229 0.313195
-0.00667548 -0.0695763 0.314221
-0.0055972 -0.0687196 0.312509
-0.00469797 -0.0686624 0.312616
-0.00356441 -0.0674032 0.309981
-0.00267634 -0.0673428 0.310082
-0.00185832 -0.0676799 0.311093
-0.000899527 -0.0672161 0.310274
0.000176652 -0.0659532 0.307621
0.00128838 -0.0642915 0.304047
0.00204075 -0.0650199 0.305961
0.00296137 -0.0645513 0.305126
0.00363952 -0.0660697 0.308869
0.00452121 -0.0659942 0.308945
0.00559905 -0.063932 0.304433
0.0064615 -0.0638544 0.304502
0.00741837 -0.0625861 0.301815
0.00854481 -0.0585469 0.292698
0.00949897 -0.0560954 0.287245
0.0102285 -0.0572029 0.290053
0.011045 -0.0567273 0.289185
0.0117937 -0.0582225 0.292908
0.0126141 -0.0577429 0.292034
0.0134141 -0.058443 0.293915
0.0142302 -0.0583534 0.293956
0.0150428 -0.0578694 0.293074
0.015855 -0.0577767 0.293108
0.0166672 -0.0576821 0.29314
0.0174337 -0.056412 0.290409
0.0181959 -0.0555337 0.288595
0.0189655 -0.0550458 0.287698
0.0198077 -0.0557268 0.289559
0.020604 -0.0556254 0.289577
0.0220805 -0.0542522 0.286843
0.0229919 -0.0553106 0.289615
0.0246333 -0.0554787 0.290548
0.0254326 -0.0553663 0.29055
-0.148261 -0.0815495 0.317822
-0.148981 -0.0828909 0.32065
-0.149127 -0.08387 0.322737
-0.148708 -0.0844841 0.324077
-0.14828 -0.0850975 0.325418
-0.146759 -0.0849749 0.325249
-0.145782 -0.0852166 0.32583
-0.144266 -0.0850867 0.325649
-0.142754 -0.0849528 0.32546
-0.141247 -0.0848149 0.325265
-0.138692 -0.0839299 0.323532
-0.135633 -0.0826655 0.321018
-0.132079 -0.0810195 0.317716
-0.129588 -0.0801113 0.315935
-0.127115 -0.0791963 0.314138
-0.125678 -0.0790252 0.313877
-0.124751 -0.0792264 0.314386
-0.12332 -0.0790486 0.314113
-0.121894 -0.0788671 0.313834
-0.120968 -0.0790601 0.31433
-0.120532 -0.0796298 0.315607
-0.11911 -0.0794393 0.315314
-0.118663 -0.0800058 0.316588
-0.118208 -0.0805714 0.317863
-0.117265 -0.0807545 0.318348
-0.114895 -0.0797884 0.316452
-0.113016 -0.079199 0.315336
-0.11068 -0.0782212 0.313415
-0.107899 -0.0768532 0.310682
-0.105604 -0.0758628 0.308733
-0.104244 -0.0756374 0.308372
-0.10289 -0.0754086 0.308006
-0.101991 -0.0755631 0.308438
-0.10109 -0.0757155 0.308866
-0.100188 -0.0758657 0.309292
-0.0992842 -0.0760137 0.309715
-0.0983786 -0.0761596 0.310135
-0.0970381 -0.0759138 0.30974
-0.0961327 -0.0760548 0.310153
-0.0952256 -0.0761936 0.310562
-0.0943169 -0.0763303 0.310969
-0.0938257 -0.0768565 0.312192
-0.0933258 -0.0773815 0.313415
-0.0924052 -0.0775128 0.313816
-0.0918914 -0.078035 0.315038
-0.091369 -0.078556 0.31626
-0.0908378 -0.0790757 0.317482
-0.0906956 -0.0799889 0.319532
-0.0905375 -0.0809017 0.321585
-0.0895825 -0.081023 0.321979
-0.0886258 -0.081142 0.322369
-0.0872843 -0.0808624 0.321922
-0.0836701 -0.0781984 0.316455
-0.0816095 -0.0771154 0.314313
-0.0803141 -0.0768232 0.313837
-0.0786557 -0.0761299 0.312515
-0.0773757 -0.0758313 0.312026
-0.0757399 -0.075131 0.310688
-0.0744754 -0.0748263 0.310186
-0.0732168 -0.0745187 0.309679
-0.0719642 -0.0742083 0.309165
-0.0710647 -0.0742954 0.309495
-0.0701639 -0.0743804 0.309821
-0.0689221 -0.0740623 0.309293
-0.0680225 -0.0741429 0.309612
-0.0667893 -0.0738196 0.309075
-0.0658909 -0.0738956 0.309387
-0.0649913 -0.0739695 0.309696
-0.0644118 -0.074444 0.310859
-0.0638238 -0.074917 0.312022
-0.0632272 -0.0753884 0.313184
-0.0626221 -0.0758582 0.314346
-0.0617019 -0.0759228 0.314645
-0.0610834 -0.0763892 0.315804
-0.0601573 -0.0764498 0.316099
-0.0589347 -0.0761038 0.315524
-0.0583017 -0.0765645 0.316678
-0.0576602 -0.0770235 0.317831
-0.0570102 -0.0774808 0.318983
-0.0563516 -0.0779364 0.320135
-0.0559611 -0.0787957 0.322157
-0.0552817 -0.0792479 0.323307
-0.0543247 -0.0792924 0.323584
-0.053632 -0.0797408 0.324732
-0.0524076 -0.079375 0.324127
-0.0519633 -0.0802255 0.326148
-0.0512488 -0.080668 0.327291
-0.0253677 -0.0800158 0.3313
-0.0221159 -0.0738875 0.317965
-0.0204517 -0.0718289 0.313622
-0.0208332 -0.0754639 0.3219
-0.0200285 -0.0758416 0.322964
-0.0184014 -0.0737779 0.318605
-0.0183945 -0.07659 0.325087
-0.0162854 -0.0728981 0.317097
-0.0144937 -0.070019 0.310905
-0.0138379 -0.0707935 0.312854
-0.0122351 -0.0683192 0.307551
-0.011016 -0.0670618 0.304959
-0.0102543 -0.0674251 0.305992
-0.0101133 -0.0702173 0.312472
-0.0093123 -0.0705747 0.313504
-0.00918256 -0.0737631 0.320898
-0.00759296 -0.0708776 0.314652
-0.00677166 -0.0712279 0.315678
-0.00534442 -0.068747 0.310326
-0.00445268 -0.0686901 0.310433
-0.00332772 -0.0674205 0.307802
-0.00215201 -0.0657472 0.304253
-0.00156634 -0.0672985 0.307998
-0.000619362 -0.0668317 0.307179
0.000568658 -0.0647538 0.302703
0.00136845 -0.0650899 0.303703
0.00206743 -0.0662272 0.306528
0.00324427 -0.0637468 0.301123
0.00390856 -0.0652806 0.304858
0.00473223 -0.0656072 0.305848
0.00575796 -0.0639284 0.302259
0.00657794 -0.0642515 0.303243
0.00753004 -0.0629726 0.30056
0.00875784 -0.0572998 0.287793
0.0103632 -0.0567458 0.286984
0.0111213 -0.0574626 0.288868
0.0118717 -0.0589719 0.292585
0.012692 -0.0584886 0.291713
0.0134929 -0.0591956 0.293592
0.0143092 -0.0591058 0.293632
0.0151099 -0.0574293 0.289998
0.0159106 -0.0573377 0.290032
0.016723 -0.0576396 0.290982
0.0174964 -0.0567543 0.289174
0.0182347 -0.0554747 0.286444
0.0197773 -0.054886 0.285569
0.0245113 -0.0546525 0.286556
0.0252952 -0.0545419 0.286558
-0.145215 -0.0797651 0.31158
-0.149877 -0.0836797 0.319593
-0.150031 -0.084667 0.321676
-0.15017 -0.0856553 0.323764
-0.149195 -0.0859056 0.324356
-0.148219 -0.0861534 0.324946
-0.146697 -0.0860277 0.324778
-0.14518 -0.085898 0.324603
-0.143668 -0.0857642 0.324421
-0.142159 -0.0856263 0.324233
-0.140126 -0.0851101 0.323275
-0.137579 -0.0842133 0.321543
-0.134527 -0.0829336 0.319031
-0.13098 -0.0812686 0.315734
-0.128496 -0.0803486 0.313953
-0.126542 -0.0797999 0.312929
-0.125108 -0.0796249 0.312667
-0.12469 -0.0802053 0.313949
-0.123259 -0.0800243 0.313678
-0.121833 -0.0798395 0.3134
-0.120906 -0.0800329 0.313896
-0.119978 -0.080224 0.314389
-0.119048 -0.0804128 0.314879
-0.118115 -0.0805993 0.315366
-0.117663 -0.0811681 0.316638
-0.116723 -0.0813508 0.317121
-0.114357 -0.0803736 0.315228
-0.11201 -0.0793902 0.313321
-0.109682 -0.0784008 0.311401
-0.107372 -0.0774053 0.309467
-0.105543 -0.0767922 0.308319
-0.104183 -0.0765635 0.30796
-0.102828 -0.0763314 0.307595
-0.101929 -0.0764862 0.308026
-0.101028 -0.0766388 0.308455
-0.100125 -0.0767892 0.308881
-0.0987811 -0.0765455 0.308496
-0.0978787 -0.0766911 0.308915
-0.0969746 -0.0768345 0.30933
-0.0956394 -0.0765821 0.30893
-0.0951615 -0.0771148 0.310152
-0.0942525 -0.0772517 0.310559
-0.0933419 -0.0773864 0.310963
-0.092845 -0.0779148 0.312183
-0.0923394 -0.078442 0.313403
-0.0922332 -0.0793648 0.315445
-0.091302 -0.0794928 0.315843
-0.0907702 -0.0800164 0.317064
-0.0906272 -0.0809369 0.319111
-0.0900744 -0.0814584 0.320332
-0.0891226 -0.0815794 0.320724
-0.0877826 -0.0812986 0.320282
-0.0856821 -0.0802146 0.318169
-0.0828428 -0.0783249 0.314375
-0.0807899 -0.0772304 0.312236
-0.0791295 -0.0765326 0.310921
-0.0778508 -0.0762328 0.310436
-0.076943 -0.0763321 0.310786
-0.0753111 -0.0756243 0.30945
-0.0736925 -0.0749129 0.308106
-0.0727952 -0.0750044 0.308441
-0.0718966 -0.0750937 0.308773
-0.0706501 -0.074777 0.308255
-0.0700957 -0.0752662 0.309428
-0.0688539 -0.0749446 0.308902
-0.0676182 -0.0746202 0.308371
-0.0667207 -0.0746984 0.308686
-0.065822 -0.0747746 0.308998
-0.0649222 -0.0748486 0.309307
-0.0643421 -0.0753268 0.310468
-0.0637535 -0.0758035 0.31163
-0.0631564 -0.0762786 0.31279
-0.0625506 -0.0767521 0.31395
-0.0616302 -0.0768168 0.31425
-0.061011 -0.0772868 0.315407
-0.0600846 -0.0773475 0.315702
-0.0591571 -0.077406 0.315993
-0.0585198 -0.0778706 0.317146
-0.0578739 -0.0783335 0.318299
-0.0572195 -0.0787947 0.319451
-0.0565566 -0.0792542 0.320602
-0.0561615 -0.0801209 0.322622
-0.0554778 -0.0805769 0.323772
-0.0545167 -0.0806217 0.32405
-0.0540847 -0.0814835 0.32607
-0.0531141 -0.0815241 0.326343
-0.0536877 -0.084022 0.331864
-0.0172574 -0.0742033 0.317475
-0.0156926 -0.0721194 0.313108
-0.0136709 -0.0683962 0.305116
-0.0125577 -0.0675407 0.303442
-0.0114596 -0.0666838 0.301762
-0.0100401 -0.0645982 0.29736
-0.00920051 -0.0645575 0.297481
-0.00961384 -0.0694204 0.308478
-0.00882771 -0.0697821 0.309507
-0.00900046 -0.0742251 0.31961
-0.00741694 -0.0713145 0.313375
-0.00615422 -0.0696289 0.309855
-0.00500731 -0.0683508 0.307237
-0.00380222 -0.0666647 0.303705
-0.00262791 -0.0649788 0.300165
-0.00170471 -0.0645138 0.299351
-0.00120636 -0.0664873 0.303999
-0.000471969 -0.067237 0.305914
0.000710585 -0.0651412 0.301445
0.00150708 -0.065481 0.302443
0.00225748 -0.0662238 0.304351
0.00317396 -0.065748 0.303519
0.00389785 -0.0668902 0.306336
0.00472989 -0.0672195 0.307325
0.00580062 -0.0651213 0.302829
0.00679799 -0.0634285 0.299241
0.00773365 -0.0621402 0.296562
0.0111981 -0.0581965 0.288549
0.0119278 -0.0605229 0.294092
0.0127556 -0.060035 0.293222
0.0135757 -0.0595462 0.292349
0.0143875 -0.0586561 0.290557
0.0151666 -0.0561668 0.285095
0.0159563 -0.0564765 0.286045
0.023151 -0.0567731 0.288985
0.0246412 -0.0557658 0.287162
0.0253744 -0.0552611 0.286247
-0.150209 -0.0840937 0.31779
-0.151491 -0.0858292 0.321352
-0.151079 -0.0864553 0.322693
-0.150659 -0.0870806 0.324034
-0.149132 -0.0869591 0.32388
-0.14761 -0.0868336 0.323719
-0.146092 -0.086704 0.323551
-0.144578 -0.0865703 0.323376
-0.143069 -0.0864325 0.323194
-0.141563 -0.0862907 0.323004
-0.139005 -0.0853892 0.321288
-0.136465 -0.0844806 0.319557
-0.13342 -0.0831854 0.317047
-0.129881 -0.0815016 0.313754
-0.127404 -0.0805698 0.311974
-0.126481 -0.0807763 0.312488
-0.125047 -0.080598 0.312228
-0.124123 -0.0807992 0.312735
-0.123197 -0.0809982 0.313239
-0.12177 -0.0808102 0.312962
-0.120348 -0.0806185 0.31268
-0.119915 -0.0811953 0.313951
-0.118496 -0.0809977 0.313659
-0.118051 -0.0815713 0.314928
-0.117117 -0.0817559 0.315412
-0.115702 -0.0815494 0.315106
-0.113344 -0.0805605 0.313214
-0.110533 -0.0791754 0.310517
-0.108683 -0.0785643 0.309389
-0.106845 -0.0779485 0.308252
-0.105019 -0.0773279 0.307105
-0.103662 -0.0770953 0.306746
-0.102765 -0.0772525 0.30718
-0.101865 -0.0774075 0.307612
-0.100964 -0.0775604 0.30804
-0.100061 -0.0777111 0.308466
-0.0991568 -0.0778596 0.308889
-0.0982506 -0.078006 0.309309
-0.0969099 -0.0777535 0.308917
-0.0955747 -0.0774977 0.308518
-0.0946706 -0.0776365 0.308926
-0.0941869 -0.0781714 0.310146
-0.093276 -0.0783064 0.310549
-0.0927785 -0.0788385 0.311768
-0.0922723 -0.0793695 0.312986
-0.0921653 -0.0802996 0.315025
-0.0912338 -0.0804279 0.315423
-0.0907015 -0.0809552 0.316642
-0.0901604 -0.0814814 0.317861
-0.0896107 -0.0820062 0.319079
-0.0882721 -0.0817242 0.318642
-0.0865528 -0.0810359 0.317369
-0.0840808 -0.0795364 0.314425
-0.0820154 -0.0784353 0.312298
-0.0803458 -0.0777339 0.310994
-0.0786893 -0.0770287 0.309682
-0.0774142 -0.076725 0.309197
-0.0765097 -0.0768241 0.309545
-0.0748817 -0.0761088 0.308211
-0.0736244 -0.0757965 0.30771
-0.0727268 -0.0758881 0.308045
-0.071828 -0.0759775 0.308377
-0.0705814 -0.0756574 0.307861
-0.0696836 -0.0757423 0.308186
-0.0687847 -0.0758252 0.308508
-0.067549 -0.0754974 0.307978
-0.0666512 -0.0755757 0.308293
-0.0660803 -0.0760612 0.309457
-0.064852 -0.0757261 0.308914
-0.0642714 -0.076208 0.310074
-0.0636822 -0.0766883 0.311234
-0.0627712 -0.0767567 0.311537
-0.0621686 -0.0772337 0.312694
-0.0615574 -0.0777091 0.313851
-0.0609377 -0.0781828 0.315007
-0.0603094 -0.0786549 0.316163
-0.0596726 -0.0791254 0.317318
-0.0587362 -0.0791823 0.317608
-0.0580861 -0.0796491 0.31876
-0.0574273 -0.0801141 0.319912
-0.0567601 -0.0805775 0.321062
-0.0560842 -0.0810389 0.322212
-0.0556722 -0.0819115 0.32423
-0.054707 -0.0819565 0.324509
-0.0540056 -0.0824124 0.325656
-0.0546007 -0.0849333 0.331163
-0.0114975 -0.0678944 0.302313
-0.009181 -0.0624883 0.290688
-0.00912395 -0.0653369 0.297136
-0.00963687 -0.0706552 0.30902
-0.00884626 -0.0710201 0.310048
-0.00939631 -0.0771502 0.323759
-0.00751827 -0.072978 0.314817
-0.00580609 -0.0692198 0.306769
-0.00458693 -0.0675202 0.303248
-0.00323691 -0.0649986 0.297903
-0.00247183 -0.0653535 0.29891
-0.00155267 -0.0648851 0.298097
-0.000364299 -0.0627743 0.293643
0.000393601 -0.0631242 0.294641
0.00122087 -0.0630621 0.294727
0.00222092 -0.06177 0.292078
0.00266131 -0.0645684 0.298533
0.00335531 -0.0657257 0.301346
0.00393515 -0.0681042 0.306893
0.0049396 -0.0668043 0.304233
0.0061494 -0.0630583 0.296095
0.00698145 -0.0629829 0.296161
0.00802584 -0.0600567 0.289835
0.0104782 -0.0590101 0.288177
0.0112017 -0.0609565 0.292797
0.0119532 -0.0633021 0.298331
0.0127934 -0.063213 0.298379
0.0136397 -0.0623136 0.296595
0.0144697 -0.0610102 0.293892
0.0152575 -0.0580941 0.287525
0.0160252 -0.0567942 0.284814
0.0199888 -0.0571204 0.286776
0.0208416 -0.0578194 0.288626
0.0216025 -0.0573159 0.287726
0.0223555 -0.0568117 0.286823
0.0232313 -0.0575024 0.288666
-0.154076 -0.0877376 0.322491
-0.153102 -0.0879979 0.323096
-0.151016 -0.087506 0.322213
-0.150043 -0.0877596 0.322808
-0.14852 -0.0876342 0.322654
-0.146456 -0.0871274 0.321743
-0.144944 -0.086993 0.321573
-0.143437 -0.0868545 0.321395
-0.141934 -0.086712 0.32121
-0.139903 -0.0861849 0.320262
-0.137883 -0.0856522 0.319303
-0.134825 -0.0843496 0.316813
-0.132312 -0.0834213 0.315066
-0.129299 -0.0821024 0.312541
-0.127341 -0.081544 0.31153
-0.126417 -0.0817508 0.312044
-0.124983 -0.0815694 0.311786
-0.124059 -0.081771 0.312292
-0.122631 -0.0815827 0.312022
-0.121706 -0.081779 0.312521
-0.120779 -0.081973 0.313017
-0.11985 -0.0821647 0.31351
-0.118431 -0.0819639 0.313219
-0.117502 -0.0821504 0.313704
-0.116089 -0.081943 0.313402
-0.114204 -0.0813396 0.312307
-0.111856 -0.0803384 0.310415
-0.109056 -0.0789374 0.307719
-0.107684 -0.0787118 0.307381
-0.106317 -0.0784828 0.307036
-0.104955 -0.0782503 0.306685
-0.103598 -0.0780144 0.306328
-0.1027 -0.0781718 0.306762
-0.101801 -0.0783271 0.307194
-0.100899 -0.0784802 0.307622
-0.0999961 -0.0786312 0.308048
-0.0990912 -0.07878 0.308471
-0.0981847 -0.0789266 0.308891
-0.0964116 -0.0782705 0.307692
-0.0955088 -0.0784117 0.308103
-0.0946043 -0.0785507 0.308511
-0.0941201 -0.0790894 0.309729
-0.0932089 -0.0792246 0.310133
-0.0931256 -0.0801634 0.312165
-0.0926153 -0.0806987 0.313383
-0.0920963 -0.0812328 0.314602
-0.0915685 -0.0817657 0.31582
-0.0910321 -0.0822973 0.317039
-0.0900899 -0.0824222 0.317434
-0.0891462 -0.082545 0.317826
-0.0878112 -0.0822592 0.317389
-0.0857096 -0.0811567 0.315289
-0.0836281 -0.0800494 0.313178
-0.0815668 -0.0789372 0.311055
-0.0795258 -0.0778204 0.308921
-0.0778768 -0.0771073 0.307609
-0.076977 -0.0772083 0.307958
-0.0757114 -0.0768979 0.307468
-0.0744518 -0.0765845 0.306973
-0.0731981 -0.0762683 0.306471
-0.0723039 -0.0763597 0.306805
-0.0714084 -0.0764489 0.307136
-0.0701655 -0.076125 0.30662
-0.0692711 -0.0762097 0.306944
-0.0683755 -0.0762923 0.307265
-0.0674787 -0.0763729 0.307583
-0.0665806 -0.0764513 0.307898
-0.0656813 -0.0765277 0.308209
-0.0647809 -0.0766019 0.308519
-0.0641997 -0.0770875 0.309677
-0.0632932 -0.0771579 0.309981
-0.0626986 -0.0776401 0.311138
-0.0620954 -0.0781207 0.312294
-0.0614836 -0.0785997 0.313449
-0.0608633 -0.0790772 0.314603
-0.0602345 -0.0795529 0.315757
-0.059597 -0.0800271 0.316911
-0.0586604 -0.080084 0.317201
-0.0582966 -0.0809702 0.319215
-0.0576335 -0.0814391 0.320366
-0.0566824 -0.0814902 0.320651
-0.0562817 -0.0823716 0.322666
-0.055593 -0.0828351 0.323814
-0.0548958 -0.0832967 0.324961
-0.0547189 -0.0845901 0.327847
-0.0526936 -0.0829635 0.324641
-0.00715698 -0.0725775 0.311724
-0.00554763 -0.0692027 0.304595
-0.00484351 -0.0699783 0.306515
-0.00315806 -0.0657756 0.297557
-0.00262215 -0.067377 0.301283
-0.00147336 -0.0656618 0.297751
-0.000149016 -0.0627054 0.29149
0.00105624 -0.0601647 0.286128
0.00172667 -0.0609314 0.288027
0.00252713 -0.0608694 0.288107
0.00322116 -0.0616308 0.290004
0.00363457 -0.0648629 0.297357
0.00383731 -0.0705598 0.310174
0.00489803 -0.068836 0.30661
0.00619181 -0.064234 0.296665
0.00706179 -0.0637471 0.295821
0.00822351 -0.0591534 0.285861
0.0113535 -0.0596603 0.287902
0.012067 -0.0628464 0.295251
0.0128759 -0.063983 0.298037
0.0137135 -0.0642996 0.298995
0.0145566 -0.0637988 0.298124
0.0153462 -0.0596346 0.289029
0.0161475 -0.0595423 0.289064
0.0168974 -0.0578242 0.285441
0.0192297 -0.0571325 0.284606
0.0200965 -0.0582462 0.28737
0.0209864 -0.0593552 0.290132
0.0217188 -0.0584438 0.288319
0.0224754 -0.0579353 0.287418
0.0233561 -0.0586323 0.289258
0.0239172 -0.0565147 0.284693
0.0247497 -0.0568067 0.285613
0.025701 -0.0578967 0.28836
0.026259 -0.0561825 0.284701
-0.152478 -0.0886757 0.321871
-0.15095 -0.0885547 0.32173
-0.149426 -0.0884295 0.321582
-0.147906 -0.0883002 0.321427
-0.14639 -0.0881668 0.321265
-0.144337 -0.0876476 0.320346
-0.142832 -0.0875052 0.320168
-0.141333 -0.0873588 0.319983
-0.139305 -0.0868242 0.319036
-0.136761 -0.0858991 0.317321
-0.134759 -0.0853526 0.316351
-0.131726 -0.0840276 0.313848
-0.128717 -0.0826941 0.311327
-0.127277 -0.0825163 0.311082
-0.125841 -0.0823347 0.31083
-0.124411 -0.0821494 0.310571
-0.12349 -0.0823505 0.311076
-0.122566 -0.0825494 0.311578
-0.121143 -0.0823543 0.311303
-0.120219 -0.0825479 0.311797
-0.119293 -0.0827393 0.312288
-0.117878 -0.0825345 0.311996
-0.116467 -0.0823261 0.311699
-0.115061 -0.0821141 0.311395
-0.113182 -0.0815026 0.3103
-0.110842 -0.0804897 0.308408
-0.10852 -0.0794707 0.306504
-0.107619 -0.079639 0.306955
-0.105788 -0.0790082 0.30582
-0.10489 -0.0791709 0.306262
-0.103533 -0.0789317 0.305906
-0.102635 -0.0790894 0.306341
-0.101285 -0.0788441 0.305974
-0.100387 -0.0789968 0.306401
-0.0994869 -0.0791475 0.306825
-0.0985852 -0.0792959 0.307246
-0.0976819 -0.0794422 0.307665
-0.0963447 -0.0791825 0.307274
-0.0950129 -0.0789195 0.306877
-0.0945369 -0.0794631 0.308092
-0.0936305 -0.0796002 0.308497
-0.0927226 -0.0797351 0.3089
-0.092642 -0.0806807 0.310927
-0.0921347 -0.0812193 0.312142
-0.0916186 -0.0817567 0.313358
-0.0910939 -0.0822928 0.314573
-0.0905604 -0.0828278 0.315788
-0.0892249 -0.0825435 0.31536
-0.0882881 -0.0826655 0.315749
-0.0865708 -0.0819655 0.314485
-0.0844805 -0.0808512 0.312387
-0.0824104 -0.079732 0.310276
-0.0811177 -0.0794304 0.309812
-0.0790809 -0.0783025 0.307681
-0.0778071 -0.0779941 0.307203
-0.0765393 -0.0776828 0.306719
-0.0752774 -0.0773686 0.306229
-0.0740213 -0.0770514 0.305734
-0.0731282 -0.077145 0.306071
-0.0718805 -0.0768225 0.305565
-0.0709884 -0.0769115 0.305895
-0.070095 -0.0769985 0.306221
-0.0692003 -0.0770833 0.306545
-0.0679659 -0.0767507 0.306021
-0.0670724 -0.076831 0.306338
-0.0661778 -0.0769092 0.306651
-0.0656094 -0.0774017 0.30781
-0.0647087 -0.0774761 0.308119
-0.0641269 -0.0779654 0.309276
-0.0635366 -0.0784531 0.310433
-0.0626249 -0.0785217 0.310736
-0.0620212 -0.079006 0.31189
-0.0617141 -0.0799068 0.313899
-0.0610895 -0.0803881 0.315053
-0.0604563 -0.0808678 0.316207
-0.0598146 -0.0813458 0.31736
-0.0588739 -0.0814031 0.317651
-0.0585055 -0.0822967 0.319663
-0.057838 -0.0827695 0.320814
-0.0571621 -0.0832405 0.321963
-0.0564776 -0.0837096 0.323112
-0.0565995 -0.0854371 0.326858
-0.0558866 -0.0859031 0.328008
-0.0554293 -0.0867875 0.330025
0.00589943 -0.0691491 0.305412
0.00727653 -0.0628519 0.291841
0.00827091 -0.0602909 0.286445
0.011432 -0.06039 0.287575
0.0121387 -0.0640166 0.295822
0.0129466 -0.0655751 0.299515
0.0137833 -0.0675396 0.304118
0.0146479 -0.0666215 0.302338
0.0154806 -0.0644717 0.297819
0.016293 -0.0631447 0.29512
0.0170687 -0.0614089 0.291505
0.0177791 -0.0588568 0.286061
0.0187999 -0.0632554 0.296125
0.0195825 -0.0623357 0.294325
0.0203782 -0.0618237 0.293435
0.0212968 -0.0629396 0.296193
0.0220557 -0.0620173 0.294384
0.0227584 -0.0606891 0.291659
0.0236151 -0.0609847 0.292583
0.024383 -0.0604673 0.291679
0.0250908 -0.0595446 0.289859
0.0260628 -0.0606423 0.292601
0.0264592 -0.0577006 0.28621
0.0366866 -0.0560629 0.285973
-0.153383 -0.0894652 0.320779
-0.151296 -0.0889634 0.319907
-0.150329 -0.0892195 0.320503
-0.148808 -0.0890904 0.320354
-0.147291 -0.0889572 0.320199
-0.145778 -0.0888199 0.320036
-0.143728 -0.0882932 0.319119
-0.142227 -0.0881469 0.31894
-0.141265 -0.0883834 0.319506
-0.139238 -0.0878422 0.318562
-0.136166 -0.0865184 0.316097
-0.134168 -0.0859645 0.315128
-0.13166 -0.085015 0.313389
-0.128651 -0.0836678 0.310875
-0.127211 -0.0834868 0.310631
-0.125776 -0.0833021 0.31038
-0.124345 -0.0831135 0.310123
-0.123423 -0.083315 0.310628
-0.1225 -0.0835142 0.311129
-0.121077 -0.0833159 0.310856
-0.119658 -0.0831139 0.310576
-0.118735 -0.0833049 0.311065
-0.117323 -0.0830962 0.310774
-0.115431 -0.0824858 0.309696
-0.114032 -0.0822692 0.30939
-0.111684 -0.0812502 0.307512
-0.109828 -0.0806251 0.306405
-0.107984 -0.0799951 0.305288
-0.106618 -0.0797617 0.304949
-0.105258 -0.0795248 0.304604
-0.104363 -0.0796872 0.305044
-0.10301 -0.0794441 0.304688
-0.102115 -0.0796015 0.305121
-0.101218 -0.0797566 0.305551
-0.10032 -0.0799097 0.305978
-0.0994194 -0.0800606 0.306402
-0.0985175 -0.0802093 0.306823
-0.0976139 -0.0803558 0.307241
-0.0962767 -0.0800928 0.306852
-0.0949449 -0.0798265 0.306456
-0.0940434 -0.0799654 0.306863
-0.0935616 -0.0805111 0.308076
-0.0926533 -0.0806463 0.308478
-0.0925719 -0.0815993 0.310502
-0.0916534 -0.081731 0.310901
-0.0915474 -0.0826827 0.312929
-0.0910221 -0.0832227 0.314143
-0.0904881 -0.0837614 0.315356
-0.0891525 -0.0834738 0.31493
-0.0878226 -0.0831829 0.314497
-0.08572 -0.0820621 0.312412
-0.0832519 -0.0805225 0.309491
-0.0815751 -0.0798057 0.308207
-0.0799113 -0.0790851 0.306914
-0.0786354 -0.0787759 0.306442
-0.0769942 -0.0780481 0.305133
-0.0761011 -0.0781485 0.30548
-0.0748428 -0.0778304 0.30499
-0.0739506 -0.0779263 0.30533
-0.0730572 -0.07802 0.305666
-0.0718095 -0.0776941 0.305163
-0.0709171 -0.0777832 0.305492
-0.0696778 -0.077452 0.304979
-0.0691285 -0.0779553 0.306142
-0.0682324 -0.0780382 0.306463
-0.0673349 -0.0781189 0.306781
-0.0664363 -0.0781976 0.307096
-0.0658637 -0.0786941 0.308255
-0.064959 -0.0787689 0.308565
-0.0643729 -0.0792621 0.309721
-0.0637783 -0.0797538 0.310877
-0.0628627 -0.0798228 0.311181
-0.0622546 -0.080311 0.312335
-0.061943 -0.0812193 0.314342
-0.0610128 -0.0812827 0.314641
-0.0606766 -0.0821882 0.316649
-0.0600305 -0.0826701 0.317802
-0.0590858 -0.0827276 0.318095
-0.0584264 -0.0832058 0.319245
-0.0583235 -0.0845283 0.322115
-0.0573606 -0.0845801 0.322404
-0.0569469 -0.0854765 0.324415
-0.057331 -0.0876423 0.329021
0.00605886 -0.069113 0.303233
0.00712499 -0.0665255 0.297856
0.00817371 -0.0635227 0.291565
0.0107481 -0.0603669 0.285375
0.0115518 -0.05987 0.284517
0.0122117 -0.0651925 0.296387
0.0130369 -0.0659339 0.298254
0.0138757 -0.0670866 0.301029
0.01473 -0.0665769 0.300162
0.0155473 -0.063996 0.294741
0.016386 -0.0643137 0.295688
0.0216793 -0.0673935 0.30405
0.0223987 -0.065639 0.300423
0.0230459 -0.0634769 0.295881
0.0238331 -0.0629549 0.294982
0.0246124 -0.0624321 0.294079
0.0248586 -0.0578278 0.284059
0.0256395 -0.0577166 0.284062
0.0273292 -0.0583017 0.285884
0.0305601 -0.0582251 0.28676
0.0359852 -0.0569129 0.285686
0.0366597 -0.0563774 0.284742
-0.153315 -0.0905125 0.320286
-0.151228 -0.0900042 0.319418
-0.149706 -0.0898753 0.319276
-0.148188 -0.0897423 0.319127
-0.146675 -0.0896052 0.318971
-0.145165 -0.0894639 0.318807
-0.143119 -0.0889298 0.317892
-0.141621 -0.0887796 0.317712
-0.140127 -0.0886253 0.317526
-0.138107 -0.0880758 0.316582
-0.13557 -0.0871288 0.314873
-0.133576 -0.0865674 0.313905
-0.131071 -0.085607 0.312169
-0.129102 -0.0850339 0.311178
-0.127144 -0.0844554 0.310176
-0.12622 -0.0846634 0.31069
-0.124278 -0.0840758 0.309672
-0.123356 -0.0842776 0.310176
-0.122432 -0.0844772 0.310677
-0.121009 -0.0842757 0.310405
-0.11959 -0.0840705 0.310127
-0.118667 -0.0842617 0.310616
-0.116767 -0.083649 0.30955
-0.114396 -0.0826296 0.307697
-0.112523 -0.0820061 0.30661
-0.111139 -0.0817807 0.306293
-0.109287 -0.0811481 0.305188
-0.107446 -0.0805107 0.304072
-0.106085 -0.0802733 0.303733
-0.104728 -0.0800326 0.303388
-0.103836 -0.0801946 0.303827
-0.102486 -0.0799476 0.30347
-0.102047 -0.080512 0.304695
-0.10115 -0.0806675 0.305124
-0.100251 -0.0808208 0.305551
-0.0989085 -0.0805627 0.305177
-0.0984486 -0.0811209 0.306396
-0.0971095 -0.0808573 0.306013
-0.0962074 -0.0810013 0.306427
-0.0953037 -0.0811432 0.306837
-0.0943984 -0.0812828 0.307245
-0.0934915 -0.0814204 0.30765
-0.0925829 -0.0815557 0.308052
-0.0920867 -0.0821024 0.309262
-0.0915818 -0.082648 0.310472
-0.0910682 -0.0831924 0.311683
-0.0905459 -0.0837356 0.312893
-0.0900148 -0.0842776 0.314104
-0.0882868 -0.0835701 0.312859
-0.0865716 -0.0828584 0.311605
-0.0848692 -0.0821427 0.310342
-0.0827944 -0.0810056 0.308247
-0.0811216 -0.0802815 0.306965
-0.0794617 -0.0795535 0.305674
-0.0781894 -0.0792404 0.305202
-0.0769229 -0.0789243 0.304724
-0.0756623 -0.0786054 0.304241
-0.0747713 -0.0787035 0.304583
-0.0738788 -0.0787995 0.304922
-0.0729851 -0.0788933 0.305259
-0.0717374 -0.078564 0.304757
-0.0708448 -0.0786533 0.305086
-0.0696056 -0.0783186 0.304575
-0.068714 -0.0784034 0.304897
-0.0678212 -0.078486 0.305217
-0.0672615 -0.0789895 0.306375
-0.0666932 -0.0794915 0.307534
-0.0661163 -0.079992 0.308692
-0.0652077 -0.0800672 0.309004
-0.0646173 -0.0805643 0.31016
-0.0637026 -0.0806356 0.310467
-0.0630988 -0.0811293 0.311621
-0.0624864 -0.0816215 0.312774
-0.0618655 -0.0821121 0.313927
-0.061236 -0.082601 0.315079
-0.0605979 -0.0830882 0.316231
-0.0602448 -0.0839997 0.318237
-0.0592961 -0.0840576 0.318532
-0.0589183 -0.084966 0.320539
-0.0588067 -0.0862997 0.323407
-0.0583931 -0.0872056 0.325419
-0.0579634 -0.08811 0.327431
0.0124074 -0.0609232 0.285144
-0.154779 -0.0916804 0.319914
-0.152124 -0.0907835 0.318326
-0.150602 -0.0906549 0.31819
-0.148529 -0.0901332 0.317312
-0.147017 -0.0899955 0.31716
-0.14551 -0.0898535 0.317002
-0.144007 -0.0897075 0.316836
-0.141967 -0.0891651 0.315919
-0.140476 -0.0890102 0.315738
-0.138989 -0.0888512 0.315549
-0.136445 -0.0878988 0.313854
-0.133918 -0.0869392 0.312144
-0.132458 -0.0867651 0.311928
-0.130481 -0.08619 0.310948
-0.128516 -0.0856095 0.309959
-0.127076 -0.0854222 0.309718
-0.12564 -0.0852311 0.30947
-0.124209 -0.0850362 0.309216
-0.123287 -0.0852384 0.309721
-0.122363 -0.0854383 0.310222
-0.12094 -0.0852336 0.309952
-0.119027 -0.0846221 0.308904
-0.117617 -0.0844093 0.308619
-0.115724 -0.0837884 0.307553
-0.11336 -0.0827574 0.305701
-0.111974 -0.0825316 0.305391
-0.110117 -0.0818958 0.304295
-0.108272 -0.0812551 0.303189
-0.106908 -0.0810174 0.302856
-0.10555 -0.0807762 0.302517
-0.104197 -0.0805315 0.302172
-0.103308 -0.0806931 0.302609
-0.102418 -0.0808526 0.303042
-0.101526 -0.0810099 0.303473
-0.100632 -0.081165 0.303901
-0.0997362 -0.081318 0.304326
-0.0988389 -0.0814687 0.304748
-0.0979399 -0.0816174 0.305168
-0.0970393 -0.0817638 0.305584
-0.0957056 -0.0814936 0.305197
-0.095233 -0.0820502 0.306409
-0.0943274 -0.0821901 0.306817
-0.0934202 -0.0823278 0.307221
-0.0925113 -0.0824633 0.307623
-0.0924282 -0.083431 0.309641
-0.0915091 -0.0835632 0.31004
-0.0909949 -0.0841114 0.311249
-0.090472 -0.0846583 0.312458
-0.0891416 -0.0843658 0.312036
-0.087421 -0.0836504 0.310791
-0.0857132 -0.0829309 0.309537
-0.0836297 -0.0817868 0.307455
-0.0819514 -0.0810588 0.306182
-0.080286 -0.0803269 0.3049
-0.0790115 -0.080013 0.304434
-0.0777428 -0.0796961 0.303962
-0.0768506 -0.079799 0.304312
-0.07559 -0.0794766 0.30383
-0.0746987 -0.0795748 0.304172
-0.0734464 -0.079247 0.303681
-0.072556 -0.0793407 0.304016
-0.0716643 -0.0794322 0.304348
-0.0704228 -0.0790966 0.303842
-0.0695322 -0.0791835 0.304167
-0.0689817 -0.0796942 0.305328
-0.068085 -0.0797773 0.305649
-0.0671871 -0.0798583 0.305966
-0.0666182 -0.080364 0.307123
-0.0660407 -0.0808682 0.30828
-0.0654547 -0.0813709 0.309436
-0.0645409 -0.0814443 0.309746
-0.0639414 -0.0819436 0.3109
-0.0630215 -0.0820131 0.311205
-0.0624086 -0.0825089 0.312357
-0.061787 -0.0830031 0.313508
-0.0611569 -0.0834957 0.314659
-0.0605183 -0.0839866 0.315809
-0.0601642 -0.0849053 0.317812
-0.0597941 -0.0858227 0.319817
-0.0591222 -0.0863088 0.320967
-0.0592876 -0.0880836 0.324689
-0.0591438 -0.0894275 0.327558
-0.0587019 -0.0903397 0.32957
-0.0587853 -0.0921118 0.333306
0.0369392 -0.0581988 0.285001
-0.153581 -0.0919472 0.317956
-0.151494 -0.0914291 0.317099
-0.150531 -0.091688 0.317695
-0.148458 -0.0911599 0.31682
-0.146396 -0.0906258 0.315933
-0.145439 -0.090874 0.316513
-0.143936 -0.0907249 0.316349
-0.142437 -0.0905717 0.316178
-0.140405 -0.0900179 0.315255
-0.138918 -0.0898558 0.315068
-0.135313 -0.0880969 0.311881
-0.132794 -0.0871256 0.310172
-0.130816 -0.086547 0.309201
-0.12937 -0.0863635 0.308974
-0.127929 -0.0861761 0.308739
-0.127006 -0.086387 0.309256
-0.126081 -0.0865956 0.30977
-0.124647 -0.0863983 0.309519
-0.123217 -0.0861972 0.309262
-0.122293 -0.0863975 0.309763
-0.120869 -0.0861896 0.309494
-0.118957 -0.0855715 0.30845
-0.117056 -0.0849482 0.307396
-0.115167 -0.0843199 0.306331
-0.112807 -0.0832779 0.304482
-0.111425 -0.0830482 0.304172
-0.110048 -0.082815 0.303856
-0.108203 -0.0821675 0.302753
-0.107309 -0.0823379 0.303203
-0.105947 -0.0820941 0.302867
-0.10459 -0.0818468 0.302525
-0.103698 -0.0820094 0.302964
-0.102348 -0.0817558 0.302611
-0.101003 -0.0814989 0.302252
-0.100113 -0.0816537 0.302678
-0.0996656 -0.082222 0.303895
-0.0987681 -0.082373 0.304317
-0.0978688 -0.0825219 0.304736
-0.0969679 -0.0826686 0.305152
-0.0960653 -0.082813 0.305566
-0.0955886 -0.0833739 0.306778
-0.0946792 -0.0835146 0.307187
-0.0937682 -0.0836531 0.307594
-0.0928555 -0.0837894 0.307997
-0.0923546 -0.0843442 0.309205
-0.0910253 -0.0840554 0.308796
-0.0905142 -0.0846068 0.310001
-0.0895916 -0.0847348 0.310394
-0.0882684 -0.0844379 0.309971
-0.0865552 -0.0837147 0.308727
-0.0848549 -0.0829874 0.307473
-0.0827793 -0.0818319 0.305393
-0.0811084 -0.0810961 0.304121
-0.0798317 -0.0807814 0.30366
-0.0785609 -0.0804637 0.303195
-0.0776697 -0.0805688 0.303547
-0.0767771 -0.0806719 0.303896
-0.0758832 -0.0807728 0.304243
-0.074625 -0.0804445 0.303758
-0.0737321 -0.0805408 0.304098
-0.0728378 -0.0806349 0.304434
-0.0715902 -0.0802987 0.303936
-0.070697 -0.0803883 0.304265
-0.0694578 -0.0800468 0.303757
-0.0689068 -0.0805611 0.304916
-0.0680098 -0.0806444 0.305236
-0.0671116 -0.0807255 0.305554
-0.0665421 -0.0812348 0.306709
-0.0662904 -0.0821733 0.308706
-0.0657001 -0.08268 0.309861
-0.0647823 -0.0827538 0.310173
-0.0641785 -0.083257 0.311326
-0.0632547 -0.0833269 0.311633
-0.0626374 -0.0838266 0.312784
-0.0620116 -0.0843247 0.313935
-0.0613772 -0.0848212 0.315085
-0.0610308 -0.0857488 0.317086
-0.0606683 -0.0866752 0.319088
-0.0600007 -0.0871669 0.320238
-0.0596098 -0.0880904 0.322243
-0.0600478 -0.0903137 0.326816
-0.0596136 -0.091235 0.328826
-0.0605339 -0.0943254 0.335129
-0.151819 -0.0918047 0.315273
-0.150861 -0.0920657 0.315871
-0.149345 -0.0919292 0.315735
-0.147832 -0.0917886 0.315591
-0.145774 -0.0912471 0.314706
-0.14482 -0.0914949 0.315283
-0.14332 -0.0913419 0.315119
-0.141824 -0.0911848 0.314947
-0.139259 -0.0902235 0.313283
-0.137245 -0.0896558 0.312349
-0.134181 -0.0882791 0.309911
-0.131669 -0.0872961 0.308204
-0.129698 -0.0867092 0.307232
-0.129299 -0.0873292 0.308507
-0.127858 -0.0871387 0.308274
-0.126421 -0.0869443 0.308034
-0.125499 -0.0871525 0.308546
-0.124575 -0.0873584 0.309055
-0.123145 -0.0871542 0.308799
-0.122221 -0.0873548 0.3093
-0.119804 -0.0863251 0.307503
-0.117899 -0.0856988 0.306458
-0.115515 -0.0846567 0.304634
-0.113637 -0.0840195 0.303568
-0.11177 -0.0833774 0.302491
-0.110395 -0.0831432 0.302179
-0.109025 -0.0829053 0.301861
-0.108132 -0.0830782 0.302313
-0.106769 -0.082834 0.301984
-0.105411 -0.0825863 0.301648
-0.10452 -0.0827513 0.302089
-0.103627 -0.082914 0.302527
-0.102277 -0.0826573 0.302176
-0.101384 -0.0828151 0.302607
-0.100042 -0.0825521 0.302245
-0.0995938 -0.0831242 0.303459
-0.098696 -0.0832755 0.303882
-0.0977965 -0.0834246 0.304301
-0.0968953 -0.0835715 0.304717
-0.0959924 -0.0837163 0.305131
-0.0955152 -0.0842809 0.306341
-0.0941817 -0.0839992 0.305949
-0.0932739 -0.0841374 0.306354
-0.0927812 -0.0846971 0.30756
-0.0922798 -0.0852556 0.308766
-0.0909505 -0.0849635 0.308358
-0.0900328 -0.0850934 0.308753
-0.0887112 -0.0847954 0.308334
-0.0869963 -0.084068 0.307098
-0.0856894 -0.0837631 0.306666
-0.0839967 -0.0830279 0.305413
-0.0823168 -0.0822888 0.304151
-0.0810344 -0.0819737 0.303698
-0.0797577 -0.0816556 0.30324
-0.0784869 -0.0813346 0.302776
-0.0772219 -0.0810105 0.302306
-0.0763327 -0.0811132 0.302654
-0.0754422 -0.0812139 0.302999
-0.0745503 -0.0813124 0.303341
-0.0736571 -0.0814089 0.303681
-0.0724072 -0.0810718 0.303188
-0.0718667 -0.0815954 0.304351
-0.0706215 -0.0812533 0.30385
-0.0697268 -0.0813409 0.304176
-0.0688308 -0.0814263 0.3045
-0.0682706 -0.0819429 0.305657
-0.0673684 -0.0820245 0.305976
-0.0667947 -0.0825378 0.307131
-0.0662124 -0.0830497 0.308285
-0.0656215 -0.0835599 0.309439
-0.0647035 -0.0836339 0.309751
-0.0640991 -0.0841408 0.310903
-0.0634861 -0.0846461 0.312054
-0.0628646 -0.0851497 0.313205
-0.0622344 -0.0856518 0.314355
-0.0615957 -0.0861521 0.315505
-0.0612447 -0.0870871 0.317503
-0.0608776 -0.0880209 0.319503
-0.0604944 -0.0889534 0.321505
-0.0600952 -0.0898845 0.323508
-0.0602424 -0.0916887 0.327221
-0.0598035 -0.0926173 0.329229
-0.151003 -0.0913781 0.312003
-0.15062 -0.092036 0.313323
-0.150228 -0.0926932 0.314643
-0.149271 -0.0929513 0.315235
-0.147206 -0.0924083 0.314362
-0.1457 -0.0922596 0.314211
-0.144746 -0.0925078 0.314788
-0.142703 -0.0919499 0.313888
-0.14013 -0.0909834 0.312238
-0.138112 -0.0904132 0.311315
-0.135572 -0.0894329 0.309637
-0.132519 -0.0880402 0.3072
-0.130543 -0.0874506 0.306238
-0.12858 -0.0868556 0.305266
-0.127667 -0.0870703 0.305785
-0.126752 -0.0872826 0.3063
-0.125835 -0.0874927 0.306813
-0.124916 -0.0877005 0.307323
-0.123995 -0.087906 0.307829
-0.123072 -0.0881092 0.308333
-0.121648 -0.0878981 0.308073
-0.119235 -0.0868574 0.306278
-0.11684 -0.0858102 0.304469
-0.114954 -0.0851708 0.303414
-0.113079 -0.0845262 0.302349
-0.111216 -0.0838767 0.301274
-0.110324 -0.0840549 0.301735
-0.108953 -0.0838139 0.301418
-0.107588 -0.0835693 0.301094
-0.106697 -0.0837395 0.301543
-0.105804 -0.0839076 0.301988
-0.104448 -0.0836539 0.301649
-0.103555 -0.083817 0.302087
-0.10266 -0.0839778 0.302522
-0.101312 -0.083715 0.302168
-0.0999691 -0.0834488 0.301808
-0.0990762 -0.0836019 0.302231
-0.0981816 -0.0837529 0.302652
-0.0972853 -0.0839016 0.303069
-0.0963874 -0.0840482 0.303484
-0.0954878 -0.0841926 0.303896
-0.0950135 -0.0847605 0.305103
-0.0936836 -0.0844749 0.304711
-0.093199 -0.0850395 0.305915
-0.0922894 -0.0851757 0.306317
-0.0917909 -0.0857374 0.30752
-0.090056 -0.0850132 0.306306
-0.0887395 -0.0847136 0.305891
-0.0874286 -0.0844108 0.305469
-0.0857248 -0.083675 0.304231
-0.0844288 -0.0833654 0.303796
-0.0831385 -0.0830527 0.303356
-0.0818539 -0.0827368 0.302909
-0.0805751 -0.082418 0.302457
-0.0793021 -0.0820961 0.301998
